0.856857 4.088659799999999 -0.31634599
0.71092302 4.024079799999999 -0.31652501
5.451250099999999 1.6807400000000001 -0.43785501
7.80231 0.216933 -0.465561
6.4146299 2.1369801 2.5178298999999997
6.381720099999999 2.3020999 2.58249
6.3575802 2.26493 2.3704901
6.42945 2.2226901000000003 2.81603
6.2929401 2.35918 2.8817301
6.5554199 2.37414 2.9786999
7.2810702 3.8912799 -0.00141415
3.7887001000000002 2.8815401 -0.35619301
3.9189799 2.8582201 -0.46234801
3.8029599000000003 5.7867398 -0.200115
3.18189 5.743639900000001 -0.425174
6.28686 2.54022 0.43927601
5.7103701 1.71015 -0.67158002
5.48522 1.6639099999999998 -0.64742601
8.6273499 2.888 -0.390838
8.7835302 2.8790299999999998 -0.37752399
8.8059502 2.68891 -0.298711
8.68785 2.7764001 -0.52539998
-0.82082099 1.8852201000000002 0.06588140099999999
7.7431301999999995 2.82567 0.0944537
6.8638902 1.22024 0.13867199
6.9025698 1.33964 0.14189699
-1.3018 1.20034 -0.35013101
-0.16165 1.63537 0.607252
0.035147801 1.4981799999999998 0.814165
1.5151 5.173430000000001 -0.50948697
1.0417399 2.45328 -0.288187
1.3202698999999998 5.078470200000001 0.0077325399
1.25352 5.2268099999999995 0.0294619
1.15811 5.0560999 0.112405
6.7803797999999995 1.61268 2.5055101000000004
6.838940099999999 1.7551398999999999 2.4190400000000003
1.7918900000000002 3.92329 -0.45207199
-6.794239999999999 0.110618 0.597381
-6.7536201 0.24726699 0.55303198
1.6460700000000001 4.0466299 -0.547481
5.9489102 1.78758 2.2326099999999998
7.3364701 3.6953599 -0.49088201
-7.0353498 0.21812899 -0.472285
-6.9517002 0.231535 -0.60299301
-6.8860301999999995 0.21196 -0.465725
-6.96277 0.339845 -0.47079301
-6.793889999999999 0.141528 -0.47286001
-6.740819900000001 0.0558649 -0.45097101
-6.888450099999999 0.107692 -0.480095
-6.68153 0.110321 -0.48714799
-6.8031902 0.44135901 -0.40507901
-6.903460000000001 0.46886399 -0.30069301
-6.94066 0.39950699 -0.43300599
-7.0739598 0.41482499 -0.425542
-6.990719800000001 0.452434 -0.55103499
-6.8664597999999994 0.402329 -0.550457
3.6396799 1.8951099999999999 -0.23882601
3.59565 1.7986400000000002 -0.30575401
3.4762800000000005 1.83623 -0.415297
7.1795101 1.56857 0.38233799
7.0345802 1.6904401000000002 0.351403
-4.335869799999999 0.25729799 -0.70277703
-1.40031 0.726138 -0.17969
-0.28677899 1.8331 0.078276597
7.5535898 3.1314199 0.29183301
3.76284 4.4120598 0.310404
3.8145800000000003 0.69347602 0.86061102
4.4699101 1.8886 1.41954
4.6281099 1.7767 1.3766399999999999
6.4077802 1.01537 2.2384
6.6008301 1.0167 2.2729399
-2.4347999 1.15891 0.75852603
0.31446299 0.136136 -0.78938699
0.205248 0.256836 -0.83870202
0.33642501 0.241569 -0.65824699
0.275583 0.29730099 -0.96637702
0.155543 0.39703399 -0.89267099
0.43421999 0.227989 -0.78507
0.50056201 0.22966801 -0.92351598
0.55233002 0.237618 -0.69018102
0.649176 0.270906 -0.99796098
0.53731602 0.39227599 -0.94042498
4.9925199000000005 1.15114 0.25107399
4.8311901 1.34649 0.0806472
4.7884002 1.3229899 0.266675
4.7484198 1.23139 0.0158762
0.54823297 2.08268 -0.34495199
0.42576799 2.16135 -0.412009
0.28054699 2.09921 -0.45512101
0.44533899 2.0657301 -0.575046
0.275011 2.28776 -0.38712299
0.53227597 1.8908900000000002 -0.44499099
-2.1535599 0.20629901 -0.70751101
-2.0418701 0.290162 -0.736494
-2.1754898999999996 0.348683 -0.66832101
-2.24582 0.262366 -0.609258
-2.3378301 0.35436201 -0.675843
-2.3071401000000002 0.209068 -0.73186898
-0.75243598 1.20517 0.723777
7.6154099 1.82323 -0.52285397
7.5374799 1.9650400000000001 -0.605856
3.8673699 1.4611 2.0064299
-8.826780300000001 0.248308 -0.47706699
-8.952079800000002 0.227699 -0.49860501
-1.4475 0.49104401 -0.56572199
-1.60004 0.46382299 -0.53119397
-1.7399499 0.505822 -0.51598001
-1.6875200000000001 0.42214701 -0.64207298
-1.5735299999999999 0.349141 -0.615839
7.1987901 3.7934998999999996 -0.50619
7.2490602 3.6758599000000003 -0.66218299
0.77783102 2.0505098999999998 -0.27091399
-7.4029298 0.535873 -0.067831501
-7.5418701 0.510548 -0.123345
-7.3385400999999995 0.490473 -0.241942
8.309040099999999 0.248441 -0.118495
8.1792297 0.22836199 -0.13433599
-5.4397001 0.63256502 -0.200418
-5.2888098 0.58733302 -0.20462701
-5.27631 0.55440801 -0.34014401
-5.163010099999999 0.63255399 -0.26137999
-5.182580000000001 0.60781503 -0.104678
3.9655498999999996 0.60839403 0.939044
3.8752201 0.53682101 0.769485
3.2051898999999997 4.0013299 0.109801
-1.30746 0.83336198 0.74124599
3.1726799 1.1852 1.3592
3.1842898999999996 1.0166600000000001 1.30144
5.8495798 1.45869 0.34402099
4.2679601 1.8125200000000001 1.31873
4.29036 1.79187 1.1342601
-0.64146799 0.97694403 0.65425903
-7.618239900000001 0.23540699 -0.42903101
3.6668998999999998 4.33568 0.39483601
3.7283001000000002 4.2493501 0.46912101
3.6009099 4.3587499 0.56229103
3.5667801 4.4454598 0.420926
3.6270001000000005 4.5910201 0.44850701
3.4150901 4.3957 0.45047799
3.4710400000000003 4.546279900000001 0.54174501
7.0818 0.45303601 -0.68945402
7.0893798 0.60659498 -0.67258602
6.49228 1.3444399999999999 1.93724
3.8101101 5.5251698 0.285595
-0.27637199 2.06797 -0.23971599
-0.48471299 2.0037501 -0.27717799
8.428560300000001 2.99421 0.42488199
8.293950099999998 2.96861 0.44460899
-8.8695698 0.25435901 -0.62452698
-8.906379699999999 0.37402299 -0.52120298
-8.9215698 0.31128201 -0.37160701
6.60005 3.06197 -0.63893002
0.226972 2.7344 0.48625001
0.102414 2.8578601000000003 0.38379499
6.779950099999999 2.9806199 -0.64196497
-1.72653 1.5202200000000001 0.63972503
-1.68049 1.34243 0.65394199
7.0897298 1.7754400000000001 0.20924599
1.7299200000000001 5.02495 -0.58173901
1.78275 4.9039998 -0.58434999
3.0647900000000003 4.6385597999999995 -0.339643
3.0325699 4.6739101 -0.51696199
3.7384601 0.241906 -0.95451599
3.1727901000000003 4.309879799999999 -0.40371901
-3.13414 0.528795 -0.175852
-3.1760099 0.53306699 -0.30946001
3.0423901 4.1691799 -0.377058
3.0597999 4.269340000000001 -0.58677101
0.199532 1.92785 0.615354
4.818319799999999 1.0122 2.30058
1.41895 5.32658 -0.18398
0.137942 1.97685 -0.54060102
0.358334 1.9068599999999998 -0.52471298
5.5209699 1.3323399999999999 0.89258999
5.574629799999999 1.4340600000000001 0.76353502
-2.9791601 0.80623502 -0.33128199
-3.11815 0.70776802 -0.35202801
7.021669900000001 3.6556201 -0.34273699
2.7410799999999997 0.22432899 -0.78667003
-5.0991402 0.72545302 0.52074701
-5.222320099999999 0.64219803 0.46259499
-5.2365599000000005 0.81499302 0.51185602
-5.0701599 0.84955603 0.64309502
-4.944320200000001 0.81663001 0.72717297
5.4405799 1.8135299999999999 -0.159748
5.292389900000001 1.8515599999999999 -0.125028
4.2747502 1.95307 0.278741
-1.43575 0.293735 -0.60578102
7.14083 0.25907499 -0.64179498
0.30937701 1.54285 -0.318459
7.747439900000001 2.7115901 -0.40178299
-0.16171999 0.939632 0.52441198
5.1389399000000004 1.02528 -0.42221799
3.4605898999999996 4.7520599 0.29110399
3.6032300000000004 4.7762198 0.518969
4.0179901 1.36116 -0.09711799800000001
4.26756 1.45306 -0.177132
3.0796199 4.2033800999999995 -0.29844499
3.03705 4.0348701 -0.22102401
2.9001999 4.2319298 -0.31739199
7.8267398 0.35534501 -0.40274599
7.8698802 0.32430601 -0.54262298
7.7919102 0.25266299 -0.604698
7.9145297999999995 0.186646 -0.564619
7.9131598 0.28954899 -0.67936897
7.79845 0.393444 -0.65443498
-7.57793 0.21752 -0.56114203
-7.536680199999999 0.33510801 -0.47665301
-7.432330099999999 0.248897 -0.51323998
-7.4101900999999994 0.39900601 -0.49498099
-7.516489999999999 0.45456901 -0.39768001
6.9044299 2.9272299 -0.58940601
4.11831 2.44415 0.08551970099999999
0.602346 0.39311299 0.73609602
0.51152301 0.54770702 0.73786497
0.163828 2.8975101000000003 -0.35448399
8.5284595 2.80211 0.32266101
5.4514899 1.0660399999999999 -0.68744302
1.41057 5.4512401 0.0971734
2.9620199 5.0838299000000005 0.23540699
0.671597 2.0653 0.36205
0.81980801 2.1013501 0.45841801
4.2020402 2.9618001 -0.152137
3.8263099 4.7730597999999995 0.47821301
7.913400200000001 0.35684001 -0.291078
7.9001398 0.477121 -0.38087699
-0.366667 0.89203602 -0.24984001
-5.6536598 0.246416 -0.68115401
-0.41844201 0.97098202 -0.407482
-0.53710401 0.935862 -0.268154
-5.6026001 0.210357 -0.83139801
-5.7403402 0.25949499 -0.88482398
-5.5929098 0.28898099 -0.97094601
-5.5187802 0.077832699 -0.84323001
-14.5655 1.16329 0.130053
-0.75832897 1.52334 0.62534899
-8.7841797 0.26512101 0.148678
-8.879489900000001 0.35758701 0.09569740300000001
-8.772620199999999 0.40572 0.18426
6.7807398 3.5060301 0.13461199
3.50843 3.73101 -0.47033799
-1.4298899999999999 0.237258 -0.739959
-1.32955 0.35064399 -0.69137198
5.2517099 1.17009 2.2086501
0.45104301 0.37794301 -0.81339097
3.11836 0.80045402 1.09817
5.258170099999999 1.58397 -0.34996101
6.9858599 2.9947901000000003 0.41476399
3.75578 2.54615 -0.43274599
3.5899 2.5964099999999997 -0.49414101
-8.6012201 0.31218901 -0.09025710099999999
-8.507639900000001 0.36421099 -0.0069050398
-8.634670300000002 0.42968801 -0.021015599
5.1505599 1.5745 -0.34355399
5.2017698 1.50881 -0.465031
5.18398 1.7140799999999998 -0.480023
-8.3856897 0.31699401 0.049352799
-8.4434795 0.44400701 0.0928609
-8.5917397 0.435038 0.08711600300000001
-8.7236099 0.49665499 0.06410239599999999
-8.593890199999999 0.563541 0.015693599
7.017589999999999 2.9985098999999997 -0.52688003
3.1924601000000004 1.5164799999999998 -0.249732
7.0985799 3.0392001 -0.68241298
7.1268201 2.84515 -0.67484599
5.2171502 1.12117 2.0011301
3.3514800000000005 1.66491 -0.27844799
7.792860000000001 0.91091299 -0.0394332
7.733110000000001 0.89370501 -0.203474
4.164390099999999 3.0125300999999998 0.27289501
4.2450399 3.0964701 0.111149
-0.86025298 0.96056598 0.620906
4.1956 1.2823499 0.29263401
8.1046696 3.25298 -0.49770501
-0.72750098 0.206273 -0.82661003
-0.84191102 0.191029 -0.824736
-0.79786098 0.30416501 -0.92824298
3.8857998999999994 5.2112598 0.33677199
3.9714199999999997 5.149779799999999 0.242879
7.270229799999999 1.05176 0.42797101
7.3505402 1.0459 0.575535
5.1479502 1.29646 2.9978599999999997
7.3961701 0.96942502 -0.57917303
-4.0054102 0.70819598 -0.0683356
-4.0617499 0.64909202 -0.18451899
-3.9891400000000004 0.78971797 -0.200288
-4.0455399 0.94468999 0.0131782
-4.0865598 0.88010401 -0.108543
-3.9495599 0.94360799 -0.16350099
-4.0997601 1.0413899 -0.15396
-3.94542 0.66677302 -0.28796101
-4.1311498 0.901124 0.092037
-4.2154002 1.00993 0.0857407
-4.066180200000001 1.08489 0.00059971801
-3.89112 0.89481002 -0.30915499
-3.8166599000000003 1.0319399999999999 -0.21689799
1.7620200000000001 4.632579799999999 -0.74197203
7.4991598 2.0438499 -0.54012197
3.7350399 5.26998 0.49886501
5.1832099000000005 1.43326 3.25755
1.5360200000000002 4.5845399 -0.74194902
7.9487801 0.32652 0.119466
8.0292902 0.37757501 0.0212724
8.067560199999999 0.38967401 0.172307
8.0062399 0.29937899 0.25012699
6.4942497999999995 1.7979599999999998 1.5891
1.72238 4.0740199 0.25931299
1.7882099999999999 4.2013102 0.365302
1.70429 3.8336400999999998 0.31404501
6.3484402 1.6004200000000002 3.17803
7.8649702 1.30904 0.181683
5.8259802 0.266783 0.73050201
5.8188801 0.38167101 0.59131801
5.675769799999999 0.40395799 0.75153798
5.4562998 0.52803999 0.81015801
5.7251 1.59166 -0.60520601
-7.8282099 0.308833 0.24877299
-7.8330598 0.45275399 0.207719
-7.875 0.46067801 0.062149200999999994
-7.8912902 0.35528201 0.0102853
-7.9117098 0.40735301 -0.121123
-7.792739900000001 0.437453 -0.041919801
-8.0089302 0.41536999 0.0048481598
-7.6900401 0.54848999 -0.0442895
-7.825489999999999 0.56599498 0.025915399
-7.946730099999999 0.55242801 0.131264
-7.96737 0.53295302 -0.023817999
-7.920770200000001 0.34097901 -0.24712101
-8.089260099999999 0.54328197 0.047318399000000004
-8.0858898 0.49322399 -0.099701203
-7.6396198 0.48671001 -0.145748
-7.600180099999999 0.45557201 -0.238993
-7.6118597999999995 0.60209101 -0.21630999
-7.73522 0.51301801 -0.249676
-7.6396899000000005 0.322467 -0.25665
-7.817019900000001 0.491126 -0.183369
-7.86448 0.53370398 -0.31163701
-7.8054399000000005 0.63451803 -0.20781299
-7.7497201 0.596614 -0.152347
-7.873419800000001 0.59767699 -0.081976101
-7.7795901 0.72798902 -0.096547097
-7.674680199999999 0.70554602 -0.220402
-7.64785 0.61775303 -0.35417399
-7.530429799999999 0.71036398 -0.285696
-7.5526299 0.70960701 -0.120924
2.5876601000000004 5.629580000000001 -0.70176101
3.8901999 2.7851601 -0.34197101
3.7944199999999997 2.75055 -0.40257999
3.9339199000000002 2.6470399 -0.43056801
0.084684201 2.10585 0.63981903
-2.7902400000000003 0.65489203 -0.19458701
-0.70019603 0.98796302 -0.27216101
6.5652599 1.10963 0.181703
-1.8068099999999998 0.897874 -0.25051001
-1.8288200000000001 1.0206600000000001 -0.38491201
6.3207102 1.07956 0.19489101
6.3493199 1.18516 0.17471001
6.1547599 0.441634 0.98475999
8.320670100000001 1.9076101000000003 -0.041715801000000004
1.473 5.3927698 -0.148651
5.37115 1.42846 2.31548
6.3315201 1.67925 0.307861
-8.395039599999999 0.20857599 0.176231
-8.3894501 0.218759 0.32132599
-8.517539999999999 0.212558 0.24869999
-8.243829700000001 0.30032301 0.33011699
-8.2470398 0.22510301 0.49141699
-8.423500099999998 0.218173 0.47251701
-8.5290403 0.26934499 0.36516401
-8.644240400000001 0.213661 0.31461599
5.4319600999999995 1.30968 2.1886899
-0.229038 0.70899099 -0.57169098
-0.141691 0.59436202 -0.66071802
6.2367601 1.5839601 0.42973301
-8.5917196 0.34071201 0.25364101
-8.448010400000001 0.34144801 0.26606101
6.9734101 0.244588 -0.63502002
-4.0630202 0.53738099 -0.43757999
-8.24366 0.23817199 -0.41532099
8.2913399 1.7984900000000001 -0.141528
7.5772901 0.219355 0.56835401
1.0086499 2.4527299 0.28478101
4.3045802 1.9191999 2.12393
7.651380099999999 0.92055398 -0.454171
3.48769 2.5169599 0.49183899
-1.65336 1.08 0.67053699
5.85008 1.5057499 -0.62907898
4.433370099999999 1.57912 2.5515101000000002
4.2728901 1.6343299999999998 2.55269
1.79825 5.7906499 -0.32229
6.4541502 0.81574702 2.2799799
2.0106498999999998 5.96245 -0.26196599
4.3832998 1.63287 2.7208900000000003
4.1261001 0.72682899 1.0821399999999999
6.6607299 2.5053 -0.735434
6.5219102 2.5843699 -0.65296203
-8.2666702 0.22361401 -0.52781397
-8.1309004 0.25711399 -0.50132102
-8.2416401 0.36053601 -0.491429
-8.372819900000001 0.29035699 -0.45530999
4.2973299 1.78467 2.20158
4.1623602 1.7656699 2.29616
-0.841443 0.56355202 -0.438382
-0.82947898 0.56256098 -0.59856999
-0.79123402 0.447162 -0.64782
0.40428299 2.93541 -0.41078499
0.227174 3.04264 -0.41982201
5.5306702 2.2869699 2.6798999
-8.4715796 0.228155 0.15398601
5.3417001 1.1973200000000002 2.5185299
-0.68086302 0.55847901 -0.65350401
0.159136 2.57113 -0.31378299
3.9776599000000004 2.60849 -0.253075
4.1435699 2.6364 -0.279603
2.1445401 5.7793102 -0.300511
6.5048499 0.84112799 0.74920797
-7.8221402 0.25111899 0.58018601
-0.81229502 0.56107497 -0.758165
-0.94440103 0.485369 -0.68219203
-3.1983099 1.24104 0.17586499
-3.1202900000000002 1.38878 0.199294
-3.2802401 1.37983 0.0817995
6.1782198 1.78447 1.54664
6.305379900000001 1.7967401 1.45026
6.2526398 1.41855 -0.35973799
6.3543801 1.58408 -0.36872101
-2.7911601000000004 1.3707401000000001 0.150351
6.161910099999999 2.99405 -0.224122
6.257999900000001 3.13714 -0.370547
6.1648402 2.85022 -0.0194139
-0.379843 1.2862799999999999 -0.365273
-0.653207 0.831765 -0.022391399
-0.50820702 0.77762097 -0.066885598
-8.0409603 0.38257301 -0.192054
-8.0617104 0.30746099 -0.317038
-7.9864101 0.25588799 -0.34777099
-7.97929 0.384462 -0.38091099
-8.0681801 0.29219699 -0.45339
-8.1050396 0.43353999 -0.329063
-8.1674299 0.40566701 -0.105668
-8.2546501 0.45881701 -0.222517
-8.1196003 0.49800101 -0.212005
-8.234869999999999 0.385079 -0.34824201
3.2553501 0.54641598 1.0529600000000001
3.8641 1.7933 -0.29282701
3.9339001000000002 1.6675799999999998 -0.40134099
4.045549899999999 1.83076 -0.34851399
3.9442501000000005 1.8929 -0.23586001
4.0788002 1.9602400000000002 -0.21267401
5.1290398 1.6888299999999998 -0.168119
3.5030099999999997 5.6686301 -0.524382
-7.325099900000001 0.55840701 0.0499111
-7.18118 0.562226 0.107394
-3.3815701000000002 0.54451197 -0.28418499
8.1606398 2.0599301 -0.192205
-8.5635996 0.29517201 -0.222611
-8.473429699999999 0.35318899 -0.12935001
-8.3835402 0.424202 -0.068980403
-8.5166597 0.481116 -0.094728
-8.4187899 0.46199101 -0.205869
-8.345889999999999 0.360829 -0.191394
-8.3523598 0.401095 -0.32571399
-8.464409800000002 0.337769 -0.267952
-8.4033203 0.25331801 -0.20373601
-8.2928104 0.35687199 -0.156018
-8.3205004 0.273543 -0.38018399
-8.264100099999999 0.50113899 -0.409419
-8.381500200000001 0.230765 -0.329586
-8.510780300000002 0.20292901 -0.27072701
-8.5690699 0.30004299 -0.35644901
-8.6501303 0.206413 -0.28124899
-8.5581102 0.42906001 -0.22155499
-8.7050304 0.31150699 -0.210723
-8.7298603 0.29266599 -0.35176599
-8.866149900000002 0.21727601 -0.318418
-8.520090099999999 0.14722399 -0.337605
-8.4129496 0.120334 -0.26906601
-8.5094004 0.241336 -0.44064301
-8.519940400000001 0.35430601 -0.496842
-8.640350300000001 0.26295999 -0.48270199
-8.8440104 0.274248 -0.229536
-8.983349800000001 0.245226 -0.246108
-8.9203396 0.236045 -0.113643
-8.5296001 0.23346899 -0.58445102
-8.2178802 0.48351601 -0.0194143
-7.991149900000001 0.52600402 -0.20520499
-8.0933504 0.62995303 -0.158675
-8.2225704 0.54977697 -0.119482
-8.24512 0.60827702 0.027481601
-8.35497 0.52330297 -0.0470309
-8.347590400000001 0.45930201 0.072267398
-8.3095303 0.36600301 0.0315351
-8.3550701 0.43683201 0.206692
-8.3975496 0.57061702 0.143787
7.78016 2.64712 -0.564224
7.8273401 2.8484700000000003 -0.62431502
5.71557 1.5364200000000001 0.92822999
7.010960099999999 0.38437301 -0.69497901
-5.8773398 0.241861 0.82604003
-5.73491 0.29265299 0.84642798
-5.84936 0.285236 0.98890102
4.31915 1.41985 0.22534899
7.107019900000001 0.345025 -0.79481298
7.0013199 0.46891001 -0.81868601
6.9487801 0.51840198 -0.70670199
-0.39365199 1.6795099999999998 0.593822
0.533593 3.4209699999999996 -0.25320801
0.424804 3.4824699999999997 -0.22312699
0.41635501 3.2899101 -0.249688
3.32493 4.1665001 -0.27433801
0.42361599 3.4239599999999997 -0.42079401
1.4809901 4.23664 -0.52007401
1.45846 4.2671099 -0.67563802
5.12674 1.95402 3.0917599
4.9831901 1.8947599999999998 3.1172400000000002
-7.6594600999999995 0.34586 -0.490603
-7.5735698000000005 0.36789 -0.61333901
-7.5820599 0.47571501 -0.498741
-7.451000200000001 0.55895501 -0.47323999
-7.5871201 0.587695 -0.39164701
-7.6645799 0.465857 -0.37112901
-7.7351198000000005 0.57001901 -0.40189099
-7.6034198 0.72922701 -0.44076499
-7.7434402 0.722238 -0.33350801
8.5330496 2.3807001 -0.107705
8.6684999 2.29035 -0.0041278899
8.705900199999999 2.3383901000000002 -0.227432
0.32712001 3.1375699 0.391635
8.33815 3.8114901 0.26849401
5.299950099999999 1.9983099999999998 2.9845200000000003
5.2080598 2.0922401 3.0864699
5.944610099999999 0.87052602 2.01859
-8.0724497 0.60068297 -0.311928
-2.9764098999999997 1.2210299999999998 -0.147503
8.3187304 3.1031798999999998 0.27528799
0.226965 2.1002099999999997 0.66533101
0.329014 1.2223001 0.656874
0.214169 1.36588 0.69744003
0.49566799 1.7879699 -0.19127201
0.52084702 1.8008099999999998 -0.321803
0.66693401 1.82087 -0.204924
0.66380602 1.8878700000000002 -0.379379
8.142749799999999 2.16939 -0.481704
-3.9984 0.94780898 0.821078
8.61063 2.6994700000000003 0.21499699
-7.7136102 0.34751201 0.23481099
-7.635729799999999 0.29831499 0.35730401
-7.8491602 0.191618 0.295425
-7.770919800000001 0.33440101 0.36506999
-7.9354401 0.29791 0.34478301
-3.71965 0.222921 -0.670789
-3.5680699000000002 0.26288599 -0.67307597
-3.68169 0.36499101 -0.63045698
4.0879102 4.26369 0.0266032
0.232344 2.1173300999999998 0.51632702
4.6869502 1.47916 1.17337
4.6136699 1.72412 1.22809
1.5098798999999998 0.238157 0.72990203
5.94381 1.71271 0.98998499
3.2288599 5.3133502 -0.65735501
3.2930501000000003 5.1391902 -0.72554302
3.2907 5.335609900000001 -0.87578899
-3.3782498999999997 1.32161 0.128076
-3.3666799 1.25366 -0.153203
-3.3475599000000003 1.29505 -0.058720499
-3.5316899 1.29325 -0.07167849700000001
-3.4119501000000003 1.43804 -0.16416501
-3.21121 1.36628 -0.17495701
-3.4365799 1.47339 0.0136708
-3.36216 1.50121 0.218472
5.8298898 1.75458 1.14385
1.7652298999999998 4.97122 -0.74738598
1.80673 4.764150099999999 -0.70707703
0.75274402 2.8245299 -0.43546399
0.843593 2.7112998999999998 -0.407489
0.88002402 2.9291401 -0.50537902
0.909311 2.6022799 -0.54791099
7.922150099999999 0.55510098 -0.226281
6.3587899000000006 0.19363301 0.69400197
6.27245 0.26164299 0.68165702
6.4270401 0.314367 0.71534199
6.3157100999999995 0.250485 0.84420002
0.0803518 1.5286 -0.357665
7.8887100000000006 0.64718097 -0.354819
3.2857298999999998 4.0194402 0.42763001
4.7143102 0.96741098 2.16886
-7.894030099999999 0.40654501 0.32335499
-7.8889899 0.378739 0.466039
-8.0272398 0.409942 0.391857
-8.0118103 0.37132499 0.237488
-8.1372299 0.413674 0.30072001
-8.249409700000001 0.402439 0.211206
-2.56915 1.0826401 -0.14230201
-2.47452 1.0696700000000001 -0.264193
-2.5139598999999997 1.22492 -0.191589
-2.4956400000000003 1.21319 -0.059749200999999995
-2.4270999 1.38281 -0.22627001
-2.6284799999999997 1.37836 -0.19860099
-2.36901 1.4221801 -0.042719901
-2.2602898999999996 1.49466 -0.162094
6.64853 3.0989399 0.369313
2.83727 1.4680600000000001 0.56536698
4.131470200000001 2.3342099 0.222642
-7.9702401 0.331191 -0.0415034
7.0893698 0.150305 0.751818
7.0076098 0.27547899 0.70370001
5.29422 2.26103 2.33707
5.0772699999999995 2.3014801 2.2682199
-8.0597 0.193993 0.114734
4.2579002 1.8189400000000002 1.5033299999999998
4.3118400999999995 1.97839 1.5005
7.7657099 3.8772398999999997 -0.21489
-1.62121 1.0510401000000003 -0.31694999
-1.5614901 0.89647001 -0.242643
-1.65525 0.79827201 -0.169512
-1.51634 0.73568797 -0.25123599
-1.3986598999999997 0.86690801 -0.23944201
0.34476799 3.4137199000000003 0.45341501
6.5342898 0.173806 0.50700802
3.14432 4.67767 0.29891801
3.6581599999999996 4.4772099999999995 -0.58351499
5.2922902 1.8321599999999998 -0.27420899
6.964799900000001 0.66076303 -0.63000101
7.0630698 0.78971398 -0.60993701
6.889349900000001 0.80517 -0.62189502
6.817060000000001 0.68510199 -0.57567
6.801420200000001 0.67756599 -0.72007102
6.8062201 0.49068701 -0.70866603
3.3247001000000003 3.6442001000000004 0.40483299
-3.55755 0.26539001 -0.56274301
-3.5190001000000004 0.394842 -0.63225198
1.1822799 4.77075 0.20021801
5.6693301 1.2164700000000002 2.69086
0.60186601 3.665 -0.229479
0.62180603 3.6271 -0.40289599
8.6825705 2.6650099999999997 -0.19668201
3.7959001000000003 4.20579 0.36142901
8.1729603 2.9674699 -0.58308297
8.025059700000002 3.1712101 -0.62642199
8.087690400000001 0.273599 -0.104044
7.973249900000001 0.37924999 -0.12952
7.855360000000001 0.42797199 -0.077434301
7.9153899999999995 0.485789 -0.204027
7.909510099999999 0.27162001 -0.33462799
8.0061502 0.34816501 -0.39475599
8.00107 0.218712 -0.404771
8.0436897 0.41104001 -0.27404401
7.91644 0.27042899 -0.479287
8.0206299 0.297755 -0.55231899
8.122630099999999 0.276205 -0.34274501
8.116379700000001 0.284473 -0.462358
8.0366697 0.153991 -0.28861901
7.9842701 0.113341 -0.47288001
8.2566996 0.29086399 -0.395051
8.1546497 0.41503701 -0.39042899
7.7017798 0.151003 -0.65126598
7.8367901 0.183164 -0.737198
7.9407802 0.244105 -0.81952298
8.081769900000001 0.41751 -0.51546198
8.1625605 0.317563 -0.60776198
3.3164501000000004 1.32618 1.51335
1.25177 5.0789800000000005 -0.34200001
-8.6980696 0.37764001 -0.153386
0.063603997 2.4123398999999996 0.50195199
-0.076778002 2.55881 0.464129
-3.6735201 1.03285 0.91124803
-3.5349699999999995 0.986637 0.82743102
-8.8218899 0.33612099 -0.144067
-8.77493 0.42128 -0.257076
-8.624509800000002 0.41010499 -0.265481
-8.941769599999999 0.36749199 -0.18676101
-8.79457 0.48128501 -0.119575
-8.7599802 0.39040101 -0.021207901
-8.9026804 0.38578299 -0.039997499
-8.5539398 0.46136999 -0.36167499
-8.6275101 0.54677898 -0.25823301
-8.6894703 0.47529501 -0.37930399
7.7009400999999995 2.4345801 0.39899099
7.4998298 2.4043400000000004 0.42204899
3.1756999 1.33972 1.41111
-2.47262 0.26682001 -0.60184199
0.636594 2.2777700000000003 0.48942101
0.55809999 2.2288799 0.62630397
0.69958699 2.0963199 0.53004199
-7.32828 0.40120301 0.35425001
4.75668 2.0160401 2.9389
4.7758899 1.92757 3.12696
0.027191799 0.28961101 -0.860883
0.06823989700000001 0.41254401 -0.75735903
8.8749199 3.81722 -0.0194345
8.9945297 3.7739898999999997 -0.178086
0.50855899 1.61156 0.60484803
5.7786798 1.2518200000000002 2.2558999
0.073624097 1.6540400000000002 -0.47524199
6.4921498 1.1097299999999999 1.0794801
-0.08625700300000001 1.53415 -0.45243901
3.15505 5.5620198 -0.67179602
3.86251 2.3312399 0.590545
3.99119 2.4654 0.597049
8.4986095 2.4887199 0.252938
6.533289900000001 1.52855 3.1650099999999997
7.311250200000001 3.1197701 0.29833499
7.4119201 3.0017099 0.37531
7.2314601 2.98315 0.38962901
4.1044302 1.8842299999999998 -0.136566
4.2641301 1.96472 -0.17806099
4.1770401 2.0433098999999997 -0.37676701
6.261779799999999 1.39862 0.80296397
6.430379900000001 1.47138 0.81130898
6.8649702 0.39788699 -0.77115601
5.5522299 1.39347 -0.64280999
-6.205870200000001 0.223801 -0.541192
6.864679799999999 0.55304003 -0.84043097
-14.5485 1.0860100000000001 -2.0760801
1.14642 3.9242898999999998 0.50737
1.70727 5.147240200000001 -0.58929002
1.08574 3.7432898999999997 0.53815901
9.0265903 3.27864 -0.36015001
1.3113101 3.1125800999999997 -0.47214201
3.7788701000000002 3.53913 0.49615499
-2.3707599999999998 1.14395 -0.08835849900000001
3.8466699 3.6496798999999998 0.53986001
-3.1463301 0.86282802 0.857063
8.20926 1.87677 0.331819
7.0142102 0.63241398 -0.80555499
1.28139 3.7103 0.53182203
0.036759101 2.7787099 -0.094253004
0.074078098 2.8094001 0.093557999
5.7020302 2.2999001 -0.280137
5.737259900000001 2.2216001 -0.44810101
6.4885998 1.75204 1.3706501
4.53126 1.88355 2.6905099999999997
6.656350099999999 1.6446 3.03058
-2.6020801 0.808209 -0.34005299
3.1447401000000004 4.321579900000001 0.203043
-2.28477 0.77346897 0.73547101
-2.4034901 0.80967599 0.80830401
3.6931701 0.985946 1.79057
5.48944 1.51258 0.53177899
1.31598 3.1830201000000002 0.14801399
3.5750401 5.751150099999999 -0.35030499
3.5454299 5.9250302 -0.29357201
3.60567 5.8837099 -0.50595999
6.47716 1.2708499 0.268251
6.427599900000001 1.4528299999999998 0.278402
6.6216602 1.37734 0.34975001
1.41459 3.2123101000000003 0.42399999
2.9904398999999997 4.3123398 0.23594999
3.2952399 4.9397302000000005 0.40900499
3.3762 5.1247301 0.468739
6.726399900000001 0.45039201 -0.840437
6.7181101 0.36074901 -0.722583
6.4219999 1.1771801000000002 2.9849999
5.5371199 0.30664599 0.73676199
1.42916 2.7332598999999997 0.33434701
1.25006 2.6427099999999997 0.53086102
-6.5290197999999995 0.56905401 0.39053801
-6.4979401 0.48466501 0.529782
-5.0798100999999996 0.25179401 -0.68002599
-5.2200599 0.21843401 -0.62693501
7.3813 1.9286599999999998 -0.297582
7.432849900000001 1.9364299999999999 -0.33735201
-1.9075099999999998 0.78929901 0.71989298
0.67172801 2.6123098999999996 0.59133297
0.56172597 2.4621999 0.58894497
7.5720901 2.5447299 0.120397
8.6385498 3.56935 -0.45609501
-5.1574798 0.659563 0.304205
5.00143 1.40236 3.0571101
-1.73436 0.60422301 -0.398983
-1.8701 0.58173698 -0.48284701
1.5452501 4.2449498 0.443335
3.6229998999999995 1.00958 1.61571
3.64203 0.841914 1.6442699
3.3736898999999996 1.17024 -0.350584
3.5474601000000003 1.19268 -0.44753599
6.1376900999999995 1.50878 3.1241
4.3476501 0.95646501 1.9052
4.431570099999999 0.81213999 1.93462
4.21627 0.81699401 1.9597099999999998
1.92934 4.6353998 -0.65952402
5.7957602 1.71123 1.7169400000000001
5.63656 1.51203 1.54364
7.9328399 0.43478999 0.233477
7.481150200000001 2.01741 0.36089501
7.4789701 2.19735 0.38671601
7.516950099999999 2.0714799999999998 0.54657
4.26261 1.9799200000000001 0.052389801
0.31387401 0.47936401 -0.82021397
8.7203102 3.6524899 0.32471499
8.4087801 3.4424601000000004 0.39322001
3.5597999 1.20862 1.8191599999999999
4.4981098 0.99987602 1.46143
1.9340700000000002 5.4081998 0.344396
0.93844801 0.31037399 0.72086
-6.9306102 0.25859201 -0.74972898
-6.8820701 0.36268401 -0.63855797
-6.858580099999999 0.19634899 -0.77648699
-6.7901602 0.31551901 -0.75984401
-6.8820600999999995 0.28816801 -0.89492202
3.8833001000000005 1.81352 1.69943
1.8638599999999999 5.525129799999999 0.32436201
8.353589999999999 3.5710900000000003 0.39335001
1.89195 4.15201 -0.33214101
6.0190902 1.5735199 -0.60358202
-4.557930000000001 0.68426001 -0.083353303
-2.5072601000000003 0.39208499 -0.66679299
8.6322899 3.5353999 -0.60672098
8.066989900000001 0.422894 0.32570001
8.1645298 0.30366701 0.264321
5.7224598 1.6436501000000001 1.97305
3.5468099000000004 1.4096799999999998 1.89205
1.7920098999999998 3.74336 0.22538599
-0.074520104 0.94400698 0.67954397
-0.237443 0.890531 0.68164003
5.6770501 1.82428 1.9717200000000001
-9.008939699999999 0.196935 -0.400563
-9.1005802 0.247862 -0.51644301
-1.9061299999999999 0.75318497 -0.28498101
-1.76547 0.74385399 -0.196437
-1.64847 0.69130701 -0.287911
-1.6989 0.81309903 -0.31911001
-1.60848 0.212541 -0.72024
-1.7098900000000001 0.32718799 -0.70574999
-1.7573299 0.182914 -0.723548
-1.8538700000000001 0.295145 -0.74490798
1.40374 3.72402 0.41235101
-0.78221798 1.79082 0.50186098
-0.916049 1.6076601000000001 0.74614102
1.35778 3.5212199999999996 -0.45036501
-0.54553699 1.22246 -0.31990999
-0.0438543 0.400913 -0.59953803
-0.168935 0.340455 -0.678074
-2.5556200000000002 1.4581701 -0.036767799
3.4378300000000004 2.80864 0.64052898
-0.138289 0.187564 -0.715747
0.016597999 0.42920199 -0.60657501
-0.060933199 0.51065201 -0.63928598
0.0040684999 0.62176698 -0.72697002
-0.106446 0.50678802 -0.79269499
-0.19420999 0.44984499 -0.69542003
-0.28152999 0.33509699 -0.766792
-0.130631 0.377619 -0.820517
-0.0192811 0.45293501 -0.91809201
-0.191129 0.485017 -0.93407601
-0.178938 0.79634303 -0.113305
7.650690099999999 1.62089 -0.523812
7.515900099999999 1.6693200000000001 -0.61098099
3.3746400000000003 3.8530599999999997 0.46948701
8.0503502 1.5759701000000002 -0.105937
8.2247 1.57228 -0.046665002000000004
-4.7624998 0.65789598 -0.125653
-4.8996801 0.64074802 -0.206191
-7.490930099999999 0.24376801 -0.69224203
4.9819999 1.33549 -0.312646
4.8997998 1.5043401 -0.312783
4.7958102 1.3297700000000001 -0.38203201
-6.717239900000001 0.22645 -0.72131902
-6.737549799999999 0.33583501 -0.66494298
-6.786049799999999 0.467197 -0.72497702
-6.652019999999999 0.38543299 -0.78538001
-6.716770200000001 0.257065 -0.88164598
-6.58882 0.17798799 -0.80078101
-6.4345498 0.220377 -0.80384803
-6.541440000000001 0.26279101 -0.927167
-6.4835500999999995 0.40518099 -0.82922298
-0.28158399 0.239592 -0.75346798
-0.366907 0.223933 -0.85651898
-0.416206 0.27827799 -0.706164
-0.34787199 0.181317 -0.72909898
-0.49927899 0.219376 -0.944767
-0.34143001 0.215726 -1.0128599
-0.24464799 0.164222 -0.928267
-0.37593201 0.41232899 -0.63358599
-0.41321799 0.41013199 -0.791767
4.1870999 1.49699 0.20192599
7.197939900000001 2.6449399 0.15731101
7.1718602 2.54123 0.064932801
4.0466199000000005 5.0461102 0.0069155502
4.1970601 5.151440099999999 -0.074785903
0.81023902 3.17752 0.464935
0.911048 3.0674601000000004 0.51941401
0.76471901 3.1103201 0.62651598
1.93058 5.811580200000001 -0.0422167
1.84526 5.976890099999999 0.043326799000000006
-5.2718400999999995 0.67782301 0.048784699
-5.11446 0.64194602 0.0495781
-5.0311499 0.67775297 -0.067372002
-5.144470200000001 0.77734298 0.0279782
-5.3238902 0.602709 -0.08986289800000001
-5.46245 0.64588398 -0.0736911
-5.3133602 0.73291302 -0.170325
-5.580419999999999 0.68399698 -0.164288
-5.4491800999999995 0.78097999 -0.151383
2.87128 0.34383801 0.664554
2.8233398999999997 0.39739299 0.79500502
2.6790298999999997 0.54165602 0.81762898
-3.83057 0.648206 -0.25258401
3.1129898999999996 5.8215399 -0.14311101
0.63678402 3.3311501000000003 -0.54943597
1.6512001 3.7381201 -0.64211297
-0.17875899 2.2922398999999998 0.082220398
-2.39465 1.3140399 0.79168099
6.80652 0.244624 -0.66869003
6.6628699000000005 0.204693 -0.685229
6.5243001 0.219414 -0.70810699
6.6630201 0.25949901 -0.83098102
7.7617402 1.4223299999999999 -0.46887901
7.795959900000001 1.32558 -0.608832
3.38275 3.3363299 0.561984
3.1849401000000004 3.2384801 0.61162603
-0.81178802 0.69146198 -0.38043901
-0.95298803 0.66265303 -0.43436199
-0.96925098 0.55997002 -0.53994799
-1.0944999 0.54579699 -0.51551402
-1.04475 0.47786701 -0.64706302
-1.06257 0.64222199 -0.63654
-0.91041702 1.77214 0.106379
-1.07892 1.8690099999999998 0.096036397
3.62658 5.1178598 -0.56622398
3.6466601 5.038189900000001 -0.72227103
3.9353599999999997 2.22627 0.53885901
4.0438298999999995 2.27105 0.65567398
4.0930800000000005 2.0902901000000003 0.52858901
3.7939799 2.2552098999999997 0.58130503
3.76106 2.2723701000000003 0.74779803
3.7854400000000004 2.0718501 0.65733701
4.16435 2.7721400000000003 0.208281
3.30685 3.7643498999999996 -0.51235002
3.1149001 3.6572699999999996 -0.50033402
3.02055 0.863666 1.1535701
3.0506101 0.70391101 1.2755100000000001
2.9428999 0.69060898 1.07605
3.3871 3.6939800000000003 0.58543199
7.3973398 3.2123599 0.30510199
7.40025 3.2771299 0.44488901
7.3173399 3.1527700000000003 0.47312301
-7.7020602 0.186676 0.41196901
-7.6315598 0.24660701 0.51215702
-7.6799798 0.162227 0.53905702
-7.662169900000001 0.246978 0.65502799
6.7948599000000005 3.4309399 0.0080017699
6.6468902000000005 3.4357800000000003 0.062982097
-8.668930099999999 0.23343 0.178452
-8.7319403 0.29243699 0.269205
-8.742239999999999 0.233778 0.396263
-8.6571703 0.34265 0.38517201
-8.882929800000001 0.296599 0.25224799
-8.702300099999999 0.25662601 0.52485901
-0.130408 2.10625 0.477449
6.635099900000001 0.48313001 -0.72259903
4.1746502 1.3663501 0.38837001
-3.7797998999999995 1.08417 -0.0067732399
-3.8659999 1.1053600000000001 0.07723619799999999
-3.9213901 1.18397 -0.067459702
-3.7789199 1.26051 0.0454938
4.3556099 1.28652 0.390782
7.7551599 1.2469 0.309542
7.9290299 1.1805201 0.288885
7.8975601 1.01373 0.185957
1.11051 3.5300199999999995 -0.511657
1.23743 3.4519 -0.54412401
1.1997200000000001 3.5987899 -0.67135203
3.7301699999999998 1.7047599999999998 0.94194102
4.1838598 2.1568301 0.07450909900000001
4.2013502 2.1425099 0.24821199
0.55793798 1.91242 -0.28617501
4.13556 2.1507398999999996 0.42677099
4.2776999 2.02038 0.46651301
4.2648000999999995 2.2298901 0.598768
-3.51175 1.00653 -0.15459201
0.86710101 2.19292 -0.226276
0.56295198 3.6946399 -0.066515699
0.411107 3.7360001000000005 -0.182192
0.42476201 3.84269 0.0327291
-4.748670099999999 0.98384702 0.28184399
6.831630199999999 2.2021898999999996 -0.44423601
3.1652701000000003 1.47691 0.96990901
2.80288 5.66541 0.316001
5.2754698 1.82804 0.311663
6.4130301 3.1052301 -0.159015
6.4890099 3.20241 -0.025923301
-7.466849799999999 0.29273 0.43195799
-7.0865598 0.49590999 0.31248099
-7.07163 0.42146 0.45264
2.9663999 5.148829900000001 0.41574901
15.28 2.2016399 1.05617
3.0692599 1.29615 0.96232897
3.0313101000000002 1.24597 1.04425
2.91697 1.37885 1.0453398999999999
3.11338 1.3986399999999999 1.12327
2.8062201 1.07355 1.13473
-4.7691998 0.251847 -0.74308503
-4.7999000999999994 0.222571 -0.91186702
-4.9607201 0.259947 -0.929681
-4.8481698 0.26870501 -1.0661100000000001
3.2785201 2.89132 -0.36118001
3.2960601 4.688250099999999 0.26133201
8.2728004 3.74281 0.46714699
8.2963696 4.0275202000000005 0.41975901
5.7596102 1.05196 2.2242
5.03124 0.189335 0.60424
0.71332598 3.1562799999999998 -0.52463597
-0.213467 2.1673 -0.122087
-0.40931499 2.2467 -0.119875
7.1731 3.1208099999999996 0.39397299
7.14047 3.0589499 0.56769103
3.3680201000000003 4.69379 -0.63749099
3.6285501000000004 0.78692198 0.58710802
7.7225599 1.51309 0.44668201
7.7664099 1.3397501 0.42104501
7.6823401 1.39586 0.60065198
7.2088099 1.18118 0.548733
-2.8287598999999997 0.62592101 -0.34645301
3.2951300000000003 1.0901901000000003 1.36186
-4.4060602 1.1015198999999998 0.64773798
6.63094 1.83854 1.9003400000000001
4.1723299 3.8034599 0.105158
6.4025898 1.99141 -0.61623597
6.2231898 2.09255 -0.61984301
3.40921 3.4001601000000004 -0.41044
3.2488599 3.43379 -0.46350601
-5.367529900000001 0.198917 -0.66574401
-5.2540998 0.224618 -0.77359998
0.231493 1.5615799 -0.48058999
3.5407801 2.9688499 0.66815603
6.45719 1.04504 0.388127
6.5947099 1.17787 0.38213101
6.57655 1.04382 0.53465998
-6.330659900000001 0.26626 -0.60886699
6.3844099000000005 0.24218801 -0.72964501
2.22647 0.15335201 -0.68451297
6.3716102 2.5218301 -0.65246397
6.51302 1.79125 1.8188601000000002
6.4903797999999995 1.95485 1.8042200000000002
-0.122135 1.90265 -0.32046899
3.19382 2.2255399 -0.113459
-2.67485 0.648624 -0.302104
-0.512909 0.66981602 0.0504799
3.18929 0.96532899 1.4888299999999999
2.9821801 1.0156699 1.3826801000000002
0.80840498 0.32252899 -0.72937202
0.69916999 0.34121701 -0.829611
0.84829301 0.282276 -0.87294698
6.1441598 1.8948599999999998 1.26432
-6.2120199000000005 0.221341 -0.692128
6.503260099999999 0.257983 -0.864622
-8.1077003 0.57472003 0.183522
-8.1829901 0.55327201 0.138429
-8.1314602 0.68299901 0.104333
-8.2151804 0.658997 0.240099
-8.195739699999999 0.50020701 0.278025
3.7476001000000005 1.4687099 -0.29388699
5.0714202 1.77903 3.17766
4.2084198 1.54441 0.98116702
6.5831099 1.7050900000000002 1.6995
6.37324 1.9221801 1.64405
-2.54105 0.68104398 -0.31547499
-2.7711898999999995 0.780393 -0.34085599
-4.1836400000000005 0.661255 -0.26319599
-4.0506701000000005 0.593018 -0.32592601
-3.9037398999999997 0.55396903 -0.36794201
-3.9786301 0.67892897 -0.43838799
-4.0746698 0.75102001 -0.323946
3.23522 1.81115 0.62851101
5.2477598 1.7819 3.2334299
-8.0212202 0.68016601 0.23247001
-8.2785301 0.27750701 0.201821
-8.0935602 0.55808699 0.35256299
-8.2115097 0.47308999 0.42222801
7.0915599 3.88012 0.0621561
7.2091599 4.0202998999999995 0.17532501
7.0584202000000005 4.1107998 -0.0452439
-8.751439999999999 0.067132697 -0.201334
7.889450099999999 1.21305 -0.399414
-7.9689597999999995 0.23012 -0.58954102
-7.997789900000001 0.09213790300000001 -0.646299
-8.0773802 0.14404599 -0.64369899
-8.1262598 0.26001501 -0.70908701
1.25104 3.2379999 0.50534201
1.09841 3.2124599999999996 0.56032699
6.702610000000001 0.63515002 -0.69676203
6.5377002 0.61608702 -0.73121899
6.4422202 0.46678799 -0.72011203
8.593979800000001 3.38361 -0.59467298
8.6120501 3.2051898999999997 -0.59154898
4.30339 3.6180401 0.079429097
6.79564 1.8256 2.2356701
3.3039998999999995 1.31961 0.061514799
3.18854 1.40299 0.0078741703
-1.5891899999999999 1.2783200000000001 0.69202799
-1.67471 1.41028 0.81247801
7.97365 1.87916 0.45716301
5.236509799999999 1.61211 0.334833
-8.318300200000001 0.54965198 0.163532
-8.37325 0.57004702 0.29081801
-8.3276701 0.69206601 0.194034
5.381720099999999 1.36036 0.54115701
6.70328 1.9875900000000002 0.26189101
7.106739999999999 3.7270898999999997 -0.47902399
7.06323 3.8487400999999997 -0.67625803
7.02775 3.9732001000000006 -0.42788199
4.022389899999999 5.5307002 0.08746360199999999
3.97381 5.6515198 -0.037497401
1.8102 3.9307799 0.26479301
1.6998099999999998 3.98717 0.43399
-1.49779 0.257267 -0.84750301
-1.3556401000000002 0.31823301 -0.86383301
-1.4735200000000002 0.39132199 -0.76581001
5.0275998 1.14605 2.88659
4.8141398 1.11011 2.8346701000000003
3.6617 5.702879900000001 0.15090901
3.81846 5.7020502 0.24390601
4.8092899000000005 1.62983 1.31362
2.83481 1.16729 0.74534702
4.1840801 1.2866 2.3415699
4.61235 1.0399801 2.42097
-1.21366 1.68692 0.058891602
8.5645103 3.0429101000000003 -0.62237698
8.0229797 2.0875199 0.49945399
7.6292900999999995 0.99185002 -0.21107399
7.734700200000001 1.0304 -0.302324
5.7597499 1.29126 -0.60459501
0.984079 3.5394398999999996 -0.53204203
5.7214699 0.582214 1.23153
5.5141101 0.63743103 1.2708700000000002
1.0895299999999999 3.5037501000000004 -0.69781703
8.468999900000002 3.80896 -0.20702
8.566439599999999 3.94315 -0.27295199
7.9603701000000004 0.47535801 0.095234796
8.0376101 1.25273 -0.24550299
0.90727001 3.0248599 0.403256
0.58775902 2.16471 -0.497089
-3.20153 0.57460803 -0.44519001
-3.0586599999999997 0.591281 -0.37690899
4.149079799999999 1.1718600000000001 2.3643601000000003
3.9967699 1.32243 2.4228799
-6.4615502000000005 0.64353001 0.17748
-0.297775 2.0868499 0.08413229900000001
3.6001799 1.66905 -0.44859299
7.8858099 0.41410199 0.0127552
7.9864898 0.51105899 -0.0481118
7.8245100999999995 2.1082001 0.52086103
8.4194403 2.50265 -0.480086
8.4157 3.9521201 -0.123856
8.5242901 3.96524 0.033949301
8.327230499999999 4.098239899999999 0.019738499
7.3616099 3.2318001 -0.60514098
-6.43891 0.595164 0.33076799
4.07723 1.0619299 2.2205901000000003
-6.3969498 0.58743298 0.46608001
-6.483719799999999 0.72156399 0.41258001
-6.5668602 0.66912198 0.27056399
3.4833601 2.0557699 0.66768497
2.4600501 1.6004 6.669449799999999
7.3382100999999995 1.95186 -0.643709
7.4788599 2.12835 -0.75413299
2.1245 5.163420200000001 0.33272499
1.8703901 0.20334899 -0.934147
1.67292 0.27483299 -0.87451702
1.48684 0.275884 -0.849518
1.31536 0.272369 -0.83750302
4.3684402 0.73917902 1.7305400000000002
1.0636801000000002 0.143424 -0.76541698
0.99393702 0.27423501 -0.81758302
1.14972 0.26564699 -0.79143202
6.4001598 0.68249798 0.90670401
7.2237401 0.49013001 -0.66901702
4.8417001 1.15273 -0.0502721
9.9667997 0.93701798 6.01231
-2.16201 1.46141 0.53465301
-2.1646099 1.63287 0.454651
-3.9771199 0.68398499 0.95740098
1.60776 5.1870799000000005 -0.513493
1.55479 5.295869799999999 -0.51006103
1.5518301 5.2204099 -0.67621303
1.37772 5.2649002000000005 -0.59350997
3.5417299 4.1355801 0.47350499
-3.0521901000000002 0.72930801 -0.48284701
0.56415403 1.52636 0.30584201
6.1252398 1.5027601000000002 0.73268598
5.9998797999999995 1.6172600000000001 0.70117497
5.5668101 0.96610302 1.07131
-3.78809 0.80336201 0.75609398
4.141280200000001 1.4058501 2.2220399
4.10882 1.4393799999999999 2.3022299
-4.6698198 0.87585503 0.328655
-2.3428299 0.71916401 -0.33385599
-7.2197399 0.358293 -0.39770901
3.9359900999999997 5.3848901 -0.224969
4.0029898 5.4508901 -0.36032799
0.083774403 1.9736099999999999 0.79926002
-0.0638735 2.2557199 -0.24700101
6.3178201 1.01091 -0.356419
6.302529799999999 1.08305 -0.52045202
6.4720998 1.0555700000000001 -0.43764001
1.51508 4.8707399 -0.56917298
1.3744 4.9407501 -0.55653697
1.23643 5.0583901 -0.64920598
6.96422 2.28214 0.205182
6.46387 1.09835 0.91084802
6.6058898 1.0146899999999999 0.865062
5.650899900000001 1.42293 1.34952
5.5415502 1.4279899999999999 1.23914
0.52459103 1.31782 -0.124552
6.9846401 2.10501 0.335287
-6.3144002 0.63020903 0.29429099
5.2958798 1.13039 3.0550201
5.92134 0.102325 -0.70442402
5.8811102 0.242892 -0.73305702
3.3849398999999996 5.571929900000001 0.32602999
6.503620099999999 1.82102 0.121065
1.58631 4.8498602 -0.74708998
6.1421399 0.76167101 1.6310101000000001
-6.3284998 0.647273 0.131983
6.6879702000000005 1.2705801 2.77619
-5.1100001 0.79522699 0.26987901
5.6237702 0.87156498 1.9355
-0.88776201 0.71946502 0.068632998
4.3587298 0.93226999 1.36484
4.4232702 0.84561402 1.2235
5.513400099999999 2.0123898999999996 -0.27642199
-6.9863 0.54168099 -0.43850899
4.0781898000000005 1.94557 0.57018697
6.3358302 0.18549 0.97364801
-0.37551299 0.72018403 -0.309057
-0.278474 0.83225697 -0.377545
9.0426397 3.38289 -0.54074001
-0.89620399 0.74374598 -0.14431401
8.8649302 3.4533899 -0.62198901
8.7964897 3.6804900000000003 -0.635966
4.8475199 0.21648499 0.64844298
4.84764 0.285166 0.80170798
7.287210000000001 2.8861599 0.33325401
7.2122101999999995 2.8392401 0.505665
6.9535398 1.31766 -0.51559103
6.1789498 0.289689 0.94713098
8.2958002 3.4733300000000003 -0.54901302
8.2944803 3.3158300000000005 -0.641276
3.2868199000000002 1.6207799999999999 0.52007198
3.9758998999999995 2.7920301 0.38986799
4.058589899999999 2.9022200000000002 0.309201
4.1482801 2.76702 0.39101401
3.5931599000000003 4.0172701 0.543194
3.6269701000000003 3.7825401 0.62004697
6.4969602 2.5590200000000003 0.47684401
-0.58350801 1.35378 -0.45267999
-0.68330699 1.17591 -0.44841099
0.32713601 3.3021199999999995 -0.64174002
0.595806 3.1347899 -0.69161397
3.0983099999999997 1.13562 -0.018646
5.97016 2.17085 2.3872001
3.4312998999999995 1.64888 0.72674698
-2.6124401 0.68334001 -0.45472199
-2.5849199 0.55378503 -0.39618599
-1.5066700000000002 1.52996 -0.181693
3.30778 1.98975 0.73057002
3.5058998999999997 1.96714 0.770836
3.1833301 3.51194 0.16711199
3.0738201000000003 3.3240399 0.352806
-8.857970199999999 0.48923901 0.0181667
-9.0017004 0.447478 0.05302590099999999
-8.9665804 0.51609999 -0.088268101
-2.70542 1.17756 0.73002702
-2.78457 1.16914 0.89242899
1.4537898999999999 4.5595298 0.43912399
1.11103 2.60748 0.367024
1.17524 2.55247 0.327445
1.10376 2.5011799 0.52575999
-5.9764299 0.53625 0.06860809799999999
-5.9693699 0.65529901 -0.0219991
-5.8935699 0.64843702 0.118454
-5.79807 0.63804197 0.26177999
-5.9535599 0.55594999 0.24305999
-6.0408502 0.65044498 0.33138099
-6.01548 0.68113703 0.173134
-5.6447301 0.64713901 0.29334301
-5.7604899000000005 0.66086298 0.414646
-5.899370200000001 0.57369202 0.36822399
-6.019410099999999 0.59983099 0.47716799
-5.9179001 0.71432197 0.29809299
-5.929269799999999 0.79091603 0.079880603
-0.713507 1.71285 0.71415198
-8.2645702 0.23131999 -0.31848699
1.48886 3.6457601000000004 0.568578
6.5019102 2.0199599 2.3041899
6.6525202000000005 1.9795599999999998 2.2191701
6.6630997999999995 2.0884299 2.3897901000000004
6.48911 2.1212299 2.41945
7.2123098 0.230252 -0.770841
7.3594799 0.26516101 -0.84458703
7.4926701 0.20794401 -0.77185798
-0.35805801 1.5638299999999998 -0.27738601
-0.50359499 1.64678 -0.31078699
-0.39185899 1.55786 -0.46741
3.5087299 5.20329 -0.66108203
7.3142099 1.62119 0.47518
-8.2023201 0.80492699 0.21576899
-8.2944899 0.74459702 0.34782499
5.3440900000000005 2.26459 2.5079999
-7.8155499000000015 0.26249799 -0.74454403
3.6953699999999996 1.7057101000000003 1.60838
-8.103099799999999 0.35961801 -0.580607
-8.1377401 0.204119 -0.62460899
-8.137430199999999 0.114516 -0.599181
-8.2474699 0.276728 -0.66806298
-8.239290200000001 0.22694001 -0.813357
-8.2014599 0.383654 -0.774243
-3.9015501000000006 0.232096 -0.66968602
-3.8492401 0.352566 -0.62501699
-4.00318 0.34266701 -0.653427
-4.046120200000001 0.22803999 -0.63867497
-4.01056 0.27306399 -0.77883202
-4.1454701 0.32602999 -0.70776999
-4.11414 0.33261001 -0.54806203
-3.8929501 0.36362201 -0.45911899
-3.8418 0.48405701 -0.52914202
-3.9528401 0.39865899 -0.57040101
-4.0745702 0.46830001 -0.63400102
-3.93031 0.463301 -0.70823801
-3.8791499 0.78426898 -0.34169501
-4.1836801 0.61668497 -0.40449199
-4.2288899 0.33163601 -0.60062599
-4.2594399 0.46882799 -0.58995801
-4.2794199 0.42036399 -0.70965999
-4.18154 0.49622399 -0.73455501
-4.3282099 0.56639498 -0.70569599
-4.2932301 0.487986 -0.85460001
-4.1988301 0.375889 -0.84085
-4.4152002 0.441993 -0.62987697
4.5106001 1.9943799999999998 1.6554799999999998
4.5376902 1.87465 1.7315
5.5613599 1.63416 3.0184801
8.1134396 2.70503 -0.56497598
1.9346400000000001 4.356180200000001 0.115582
8.198829700000001 2.57567 -0.65520698
3.9382801 1.32103 2.1038001
3.8961101 1.41313 2.2718401000000004
3.88289 1.1769100000000001 2.2612200000000002
6.8924899 1.8376400000000002 2.59077
2.5205901 5.6746702 0.187819
2.2734900000000002 4.6969399 -0.306032
3.2163301 2.3631699 -0.106124
-8.8034897 0.359869 0.45279199
7.7623 0.113284 0.240252
0.93508297 2.35624 0.45349401
5.4105301 1.29865 2.7996299
3.1725199 3.5247300000000004 -0.170588
3.02108 3.5474501000000003 -0.25540799
4.5318999 0.84525001 1.3714899999999999
-3.8821299 0.33445901 -0.75608701
-3.77722 0.253214 -0.805574
-3.8036001000000006 0.25646901 -0.94206899
-3.6432099 0.269281 -0.89356601
-3.79317 0.46359 -0.68892598
-3.6603199999999996 0.19079401 -0.99315399
-3.5013498999999997 0.232391 -0.96746498
-3.6175699 0.34617901 -1.03957
-3.5109199999999996 0.25714999 -0.79403698
-3.6328498999999996 0.228275 -0.74041599
-3.61059 0.37734601 -0.75787097
-3.4227199999999995 0.25299799 -0.71913397
-3.4206199999999995 0.38777 -0.78525102
-3.36971 0.24947201 -0.86512101
-3.2661099 0.255721 -0.73359698
-3.32427 0.27906901 -1.00763
-3.21596 0.287204 -0.89374
-3.1147598999999997 0.263726 -0.74846202
-3.8530699999999998 0.60289502 -0.65846801
-3.8400300000000005 0.547364 -0.81942302
-4.8702402000000005 0.265948 -0.53876901
-4.9259701 0.381733 -0.56516302
-4.94944 0.25674099 -0.65460098
-4.9581599 0.24466 -0.77828997
-4.8948398 0.37914401 -0.73765302
-4.81248 0.334315 -0.65903598
-4.8207002 0.48482701 -0.64544898
-4.7449598 0.41529599 -0.77403402
-4.6566601 0.32872301 -0.65917701
-4.8478198 0.19904201 -0.59136701
